# .PCD v0.7 - Point Cloud Data file format
VERSION 0.7
FIELDS x y z
SIZE 4 4 4
TYPE F F F
COUNT 1 1 1
WIDTH 1562
HEIGHT 1
VIEWPOINT 0 0 0 1 0 0 0
POINTS 1562
DATA ascii
59.496262 55.56472 -63.103725
59.711407 55.545101 -63.099728
59.904739 55.500244 -63.09473
60.072838 55.462635 -63.087593
60.320702 55.443695 -63.069565
60.498524 55.413803 -63.056355
60.697224 55.419994 -63.041225
60.900261 55.413929 -63.049774
49.118252 55.619141 -63.012497
49.321915 55.61385 -63.067333
49.504089 55.624203 -63.092583
49.708874 55.640068 -63.069065
49.905495 55.639999 -63.094727
50.105236 55.655334 -63.094753
50.305012 55.675972 -63.0947
50.504757 55.667175 -63.094723
50.704506 55.669243 -63.094753
50.904243 55.686768 -63.09473
51.085438 55.670025 -63.104012
51.305206 55.671429 -63.104832
51.503498 55.694309 -63.094742
51.703247 55.690399 -63.094746
51.902996 55.719807 -63.094734
52.092564 55.689236 -63.103348
52.272297 55.733219 -63.084423
52.537495 55.703125 -63.097351
52.706337 55.714481 -63.09816
52.901741 55.734375 -63.094742
53.103348 55.724854 -63.103924
53.294891 55.719971 -63.102077
53.484283 55.749088 -63.079845
53.74123 55.777126 -63.05167
53.870426 55.735077 -63.081104
54.103466 55.732689 -63.080296
54.318428 55.681694 -63.131897
54.460583 55.686359 -63.133915
54.730061 55.675682 -63.137047
54.879665 55.675926 -63.135212
55.171852 55.72578 -63.125298
55.302086 55.725311 -63.092316
55.490673 55.737892 -63.06105
55.646423 55.718864 -63.077473
55.948135 55.656509 -63.126869
56.056232 55.634113 -63.130001
56.331692 55.626331 -63.110218
56.487186 55.627022 -63.133358
56.681957 55.63203 -63.104126
56.892113 55.662643 -63.077991
57.132832 55.64447 -63.097946
57.231312 55.634148 -63.091663
57.526215 55.628838 -63.095589
57.677826 55.659538 -63.054558
57.91523 55.620781 -63.092861
58.080685 55.617657 -63.148792
58.30558 55.64209 -63.133514
58.497364 55.635994 -63.088207
58.697388 55.645073 -63.089153
58.886494 55.626495 -63.076
59.103405 55.611069 -63.082203
59.264374 55.613911 -63.061176
59.540508 55.602913 -63.059505
59.634502 55.60384 -63.039917
52.091003 55.80241 -63.047749
52.349503 55.806641 -63.071247
52.584503 55.801758 -63.047745
52.661713 55.804688 -63.062859
53.577377 55.819824 -63.018372
53.662155 55.817059 -63.063984
54.182503 55.802734 -63.024246
56.015503 55.820312 -63.012497
36.064011 54.10054 -62.942001
36.581001 54.984371 -62.941994
66.46125 54.980957 -62.930241
66.905785 54.990887 -62.86171
67.131004 54.996094 -62.836243
67.264168 54.984699 -62.934158
67.483505 54.947266 -62.863663
67.71067 54.947266 -62.926331
67.917549 54.977139 -62.852158
68.076218 54.983505 -62.934162
68.314484 54.98394 -62.899582
68.478645 54.967754 -62.92091
68.67878 54.97438 -62.906513
68.893517 54.97221 -62.919174
69.067673 54.977367 -62.832787
69.320114 54.9674 -62.942009
69.497337 54.980595 -62.898056
69.70845 54.979214 -62.900047
69.809998 54.997395 -62.918499
70.103752 54.982666 -62.889118
36.569252 55.041012 -62.977249
36.70269 55.106133 -62.901749
36.900246 55.133801 -62.896809
37.086254 55.133026 -62.868874
37.304153 55.107193 -62.88644
37.501125 55.101982 -62.894112
37.691917 55.12772 -62.900345
37.894348 55.138805 -62.899952
38.089626 55.147312 -62.896919
38.331139 55.144012 -62.90366
38.51466 55.15057 -62.901192
38.689571 55.128475 -62.885963
38.895752 55.144093 -62.895
39.091225 55.148201 -62.893131
39.295242 55.166283 -62.895004
39.49501 55.163189 -62.895
39.668316 55.167084 -62.905567
39.944866 55.170811 -62.890972
40.093559 55.162411 -62.917107
40.292995 55.160236 -62.90456
40.495941 55.158237 -62.906307
40.692352 55.154869 -62.905304
40.896191 55.163574 -62.95668
41.187004 55.191406 -62.941994
41.251095 55.171165 -62.903542
41.54929 55.160156 -62.889126
41.702324 55.140438 -62.861969
41.903755 55.167919 -62.848003
42.092537 55.185936 -62.852695
42.265656 55.189259 -62.931427
42.460403 55.18689 -62.870037
42.702744 55.170277 -62.907833
42.889542 55.177464 -62.885269
43.070362 55.184849 -62.84129
43.316463 55.190655 -62.920307
43.511021 55.161594 -62.956852
43.649281 55.178169 -62.975952
44.18325 55.192383 -62.871498
46.286503 55.177734 -62.859749
62.243008 55.189453 -62.953747
62.518284 55.193638 -62.881565
62.715355 55.176369 -62.979607
62.891209 55.162598 -62.951797
63.052841 55.173977 -62.904034
63.299061 55.171486 -62.896793
63.503922 55.169281 -62.895008
63.703728 55.158089 -62.901466
63.891357 55.16769 -62.887177
64.103706 55.159878 -62.869389
64.28949 55.155586 -62.887012
64.506943 55.147514 -62.894348
64.689598 55.143726 -62.890129
64.911995 55.134415 -62.885349
65.097755 55.113422 -62.899067
65.300728 55.102039 -62.891376
65.497742 55.098553 -62.894993
65.692612 55.083858 -62.896851
65.88102 55.067337 -62.898361
66.10627 55.073971 -62.893658
66.296753 55.067574 -62.894978
66.50148 55.064896 -62.891781
66.695091 55.055237 -62.896297
66.901779 55.034611 -62.912323
67.06369 55.035049 -62.885471
67.294937 55.034824 -62.893845
67.538338 55.039062 -62.800995
67.695 55.02832 -62.894997
67.905525 55.015461 -62.879333
68.0989 55.026733 -62.857311
68.276978 55.013615 -62.884636
68.45092 55.012695 -62.855831
68.635002 55.006512 -62.902832
68.932671 55.022461 -62.872467
69.078888 55.012589 -62.871494
69.356796 55.015347 -62.854717
69.483482 55.003803 -62.928394
69.710426 55.008121 -62.904266
69.907631 55.013397 -62.8941
70.077042 55.016556 -62.905666
70.374001 55.082031 -62.988998
70.432755 55.029297 -62.988998
71.302246 55.172527 -62.847992
36.933502 55.201168 -62.859749
37.333 55.203121 -62.871498
37.873505 55.204098 -62.812744
38.343502 55.208981 -62.988998
38.754757 55.207516 -62.977257
39.17775 55.202145 -62.930244
39.704021 55.213295 -62.845524
39.86673 55.216434 -62.839443
40.073109 55.232677 -62.852707
40.364502 55.201168 -62.988998
40.528996 55.220245 -62.906063
40.705803 55.230843 -62.872616
40.913818 55.244629 -62.82645
41.097839 55.254482 -62.847305
41.313778 55.236584 -62.861591
41.518814 55.216953 -62.863041
41.705807 55.261269 -62.930557
41.903759 55.260437 -62.953758
42.115501 55.224026 -62.914009
42.321136 55.223888 -62.883759
42.466969 55.241211 -62.895771
42.708885 55.265583 -62.883751
42.909729 55.257626 -62.900398
43.109943 55.242725 -62.907944
43.284519 55.239433 -62.919704
43.471718 55.253036 -62.870193
43.729431 55.265476 -62.877686
43.890274 55.266617 -62.889214
44.106167 55.268829 -62.894527
44.289005 55.256226 -62.924374
44.485989 55.294693 -62.836945
44.702274 55.279972 -62.905533
44.882381 55.276855 -62.886173
45.112171 55.286606 -62.933949
45.280823 55.281502 -62.921513
45.505413 55.280445 -62.906178
45.704643 55.287811 -62.89592
45.897484 55.310215 -62.884888
46.084103 55.337055 -62.857597
46.304691 55.309921 -62.900318
46.488605 55.330036 -62.882465
46.694889 55.34222 -62.870857
46.894146 55.347713 -62.93259
47.038506 55.359131 -62.9655
60.370834 55.39323 -62.981167
60.545128 55.391113 -62.859745
60.656754 55.37793 -62.812744
60.904884 55.393154 -62.957203
61.115013 55.368221 -62.939919
61.316608 55.346184 -62.908607
61.502754 55.317547 -62.894993
61.702473 55.298103 -62.89502
61.902241 55.27607 -62.895012
62.102009 55.248528 -62.894985
62.302128 55.252079 -62.885521
62.520622 55.232468 -62.899914
62.693943 55.225182 -62.87635
62.882725 55.245052 -62.865223
63.057667 55.207031 -62.934162
63.313026 55.214714 -62.893436
63.470875 55.207031 -62.894997
63.647785 55.209854 -62.876717
63.955143 55.205078 -62.938637
64.090096 55.210285 -62.932606
64.734001 55.203125 -62.836246
71.278748 55.21452 -62.871494
46.345253 55.417969 -62.836243
46.533253 55.413574 -62.883251
46.742397 55.450001 -62.866798
46.924671 55.445862 -62.857548
47.098736 55.451668 -62.880451
47.307281 55.473701 -62.904247
47.496758 55.510227 -62.894978
47.696507 55.514008 -62.895012
47.897625 55.54274 -62.900547
48.076694 55.517578 -62.936123
48.323166 55.54549 -62.916546
48.468647 55.543247 -62.985649
48.742252 55.533691 -62.988998
48.818626 55.525391 -62.983124
49.065376 55.579102 -62.983124
49.294498 55.59798 -62.930248
57.887669 55.588215 -62.922413
58.089375 55.577637 -62.975788
58.294998 55.565971 -62.989006
58.424252 55.577148 -62.988998
58.78067 55.584637 -62.949829
58.812 55.59082 -62.953747
59.117504 55.598309 -62.988998
59.283672 55.595146 -62.844646
59.553791 55.569801 -62.932804
59.714993 55.530918 -62.931499
59.89846 55.526936 -62.931614
60.084999 55.518074 -62.898968
60.319695 55.44558 -62.903728
60.501858 55.439274 -62.896793
60.709621 55.433319 -62.905273
60.893185 55.43507 -62.897873
61.132618 55.424152 -62.842121
61.220749 55.415039 -62.800995
47.872753 55.625 -62.800995
48.058403 55.632423 -62.810394
48.305882 55.63995 -62.871498
48.492054 55.65062 -62.878418
48.692009 55.668068 -62.878792
48.913578 55.697311 -62.851818
49.096462 55.675007 -62.889812
49.29451 55.664089 -62.892155
49.499046 55.67466 -62.899765
49.694008 55.689453 -62.894985
49.905495 55.710384 -62.895
50.105244 55.683647 -62.895
50.301147 55.703178 -62.89629
50.504757 55.723957 -62.894993
50.70451 55.747734 -62.895
50.904243 55.741131 -62.894985
51.106285 55.735733 -62.905437
51.293125 55.760139 -62.873726
51.551231 55.707947 -62.911892
51.699108 55.722626 -62.89706
51.905704 55.743465 -62.896797
52.097309 55.761398 -62.895355
52.295258 55.767578 -62.904331
52.479034 55.76915 -62.886402
52.69783 55.750095 -62.908649
52.898392 55.75716 -62.898327
53.109787 55.770279 -62.855614
53.311447 55.768795 -62.877247
53.500477 55.755947 -62.883007
53.702991 55.772274 -62.914028
53.866199 55.770691 -62.901348
54.493881 55.739258 -62.933189
54.681877 55.775879 -62.900871
54.8405 55.772137 -62.988998
55.181252 55.789062 -62.871498
55.326653 55.703247 -62.959629
55.457371 55.710285 -62.955715
55.639503 55.731445 -62.941998
55.914917 55.751564 -62.919422
56.034302 55.782814 -62.859749
56.347115 55.674698 -62.960285
56.544254 55.757324 -62.883244
56.630123 55.724533 -62.915787
56.907475 55.686058 -62.959362
57.10881 55.664715 -62.9655
57.264759 55.680546 -62.934483
57.54644 55.690884 -62.90303
57.703648 55.684444 -62.917648
57.909481 55.653275 -62.905632
58.096947 55.709858 -62.87191
58.29501 55.685467 -62.883232
58.500263 55.646362 -62.890961
58.681404 55.652401 -62.893982
58.911266 55.660793 -62.903168
59.093113 55.649441 -62.891357
59.310059 55.636486 -62.905499
59.482471 55.633728 -62.877243
59.622746 55.685871 -62.824493
51.321369 55.815063 -62.886192
51.77375 55.802734 -62.859749
51.832504 55.800781 -62.847996
52.175606 55.80547 -62.890297
52.335789 55.810383 -62.834293
52.474834 55.803387 -62.879333
52.754429 55.821815 -62.867886
52.900913 55.831963 -62.885777
53.110123 55.839779 -62.900486
53.284283 55.833332 -62.924587
53.501778 55.81823 -62.929455
53.69762 55.814842 -62.868362
53.915195 55.844482 -62.87738
54.076752 55.90332 -62.800995
54.305122 55.843029 -62.850536
54.512188 55.854206 -62.84248
54.640751 55.819336 -62.906746
54.930099 55.883179 -62.823036
55.028503 55.840496 -62.836243
55.507317 55.860401 -62.845631
55.700863 55.856445 -62.853226
55.884293 55.82658 -62.865627
56.081596 55.823425 -62.870029
56.318394 55.854168 -62.811443
57.872002 55.804688 -62.800995
71.869057 54.171783 -62.709236
35.958252 54.225826 -62.624752
67.119247 54.988281 -62.612999
67.307251 54.977539 -62.612999
67.44825 54.980469 -62.67762
67.725922 54.993626 -62.661228
67.835999 54.990623 -62.688194
68.165001 54.980469 -62.742249
68.277802 54.98164 -62.758698
68.458069 54.977711 -62.718048
68.911133 54.98037 -62.706989
69.103767 54.967106 -62.656277
69.316498 54.978401 -62.71114
69.4105 54.9375 -62.777496
69.759644 54.975727 -62.743916
69.879601 54.982647 -62.705193
70.05674 54.983955 -62.653278
70.26825 54.994793 -62.695251
36.71912 55.114578 -62.690094
36.8969 55.126659 -62.696602
37.086254 55.108948 -62.70229
37.323326 55.082085 -62.701473
37.49477 55.114353 -62.692085
37.697254 55.117519 -62.695244
37.901272 55.130058 -62.701653
38.080597 55.126865 -62.694763
38.294365 55.152782 -62.680294
38.538788 55.145603 -62.716709
38.696007 55.145233 -62.695244
38.893478 55.145725 -62.697155
39.101658 55.147442 -62.708172
39.283504 55.156681 -62.729843
39.486088 55.158401 -62.730499
39.698101 55.159943 -62.730495
39.891239 55.169483 -62.668484
40.082504 55.170013 -62.684071
40.291927 55.15659 -62.655849
40.49963 55.138817 -62.665871
40.700142 55.170345 -62.681969
40.902069 55.158203 -62.712139
41.096825 55.148167 -62.701012
41.276814 55.156807 -62.728813
41.489731 55.181755 -62.69455
41.718544 55.154484 -62.700283
41.894142 55.173649 -62.66
42.056503 55.198242 -62.648247
42.335369 55.190495 -62.69759
42.442574 55.164619 -62.727142
42.698418 55.185341 -62.756462
42.855503 55.161327 -62.777496
43.525253 55.188477 -62.624748
62.540668 55.198566 -62.628662
62.738853 55.187305 -62.648247
62.921055 55.160557 -62.693165
63.034164 55.177734 -62.746162
63.344559 55.170002 -62.66
63.502907 55.170616 -62.647114
63.698307 55.16312 -62.686031
63.907726 55.161201 -62.691883
64.086594 55.159832 -62.701927
64.303902 55.139809 -62.717922
64.506477 55.149948 -62.700581
64.703545 55.121315 -62.712856
64.887474 55.11396 -62.708923
65.097687 55.121319 -62.691196
65.296539 55.119537 -62.695251
65.497749 55.11438 -62.695271
65.697495 55.102322 -62.695259
65.892555 55.090038 -62.690533
66.095497 55.085621 -62.683872
66.296753 55.067078 -62.695244
66.49649 55.050076 -62.695251
66.699493 55.061504 -62.692516
66.91861 55.06284 -62.696182
67.082237 55.055904 -62.694584
67.33046 55.047874 -62.71386
67.498116 55.034206 -62.734322
67.679329 55.028156 -62.73148
67.820335 55.017578 -62.753998
68.076866 55.016277 -62.753986
68.321365 55.031475 -62.662716
68.433403 55.029606 -62.683498
68.752518 55.02367 -62.66
68.85041 55.000977 -62.699169
69.151054 55.026173 -62.708881
69.270805 55.01519 -62.737034
69.56472 55.029663 -62.64677
69.693008 55.02713 -62.673813
69.910858 55.007977 -62.737347
70.119507 55.022026 -62.708988
70.291496 55.038647 -62.679008
70.432755 55.043945 -62.612999
36.925671 55.210281 -62.667828
39.189499 55.203121 -62.612999
39.316406 55.224312 -62.642372
39.490162 55.235462 -62.655849
39.691387 55.240299 -62.653286
39.902336 55.208981 -62.716969
40.108246 55.23381 -62.704754
40.309673 55.23616 -62.714832
40.508854 55.236813 -62.748962
40.718304 55.215061 -62.729206
40.918564 55.217625 -62.695244
41.120991 55.226936 -62.683483
41.308525 55.233761 -62.659332
41.513393 55.238194 -62.693439
41.698124 55.238949 -62.689369
41.908787 55.242561 -62.713692
42.104839 55.243694 -62.696583
42.28455 55.237259 -62.702183
42.533108 55.256836 -62.693047
42.722633 55.2509 -62.660904
42.906006 55.245541 -62.689125
43.094955 55.267208 -62.689175
43.318272 55.257812 -62.66
43.50967 55.260445 -62.708916
43.705978 55.265903 -62.692436
43.904648 55.271744 -62.712749
44.100998 55.290825 -62.695236
44.295578 55.29504 -62.676933
44.500507 55.270473 -62.697598
44.700249 55.261116 -62.742256
44.910278 55.264404 -62.701122
45.093662 55.297043 -62.687958
45.254379 55.306252 -62.65435
45.556618 55.291935 -62.723583
45.703171 55.286385 -62.707764
45.891121 55.325417 -62.694618
46.09716 55.336624 -62.696384
46.296009 55.317322 -62.715988
46.479927 55.341084 -62.700195
46.662502 55.394531 -62.671745
46.924915 55.391277 -62.714832
47.078457 55.379982 -62.704643
61.335903 55.381165 -62.70541
61.50275 55.368561 -62.695244
61.70248 55.322563 -62.695244
61.899605 55.299206 -62.693741
62.106861 55.279385 -62.692505
62.301754 55.259552 -62.695251
62.500652 55.23835 -62.690643
62.688076 55.22953 -62.708405
62.890633 55.225243 -62.702858
63.082592 55.226501 -62.668537
63.351109 55.221306 -62.717854
63.497757 55.220051 -62.740479
63.705883 55.220581 -62.727577
63.843941 55.2229 -62.71875
64.181747 55.213379 -62.742249
64.228752 55.212891 -62.742249
45.960857 55.402901 -62.700287
46.345253 55.431641 -62.612999
46.513672 55.407715 -62.673702
46.726597 55.436344 -62.699512
46.895 55.436611 -62.693462
47.078205 55.46693 -62.698883
47.330582 55.524834 -62.693565
47.493626 55.536945 -62.700733
47.710609 55.540363 -62.750862
47.896877 55.561165 -62.653801
48.066322 55.57576 -62.65752
48.349804 55.583984 -62.772797
48.566002 55.597656 -62.707001
48.671753 55.592773 -62.777496
48.914585 55.587238 -62.710918
52.866501 55.597656 -62.730499
59.094002 55.580078 -62.730499
59.516998 55.588543 -62.612995
59.634502 55.59375 -62.612999
59.97525 55.519043 -62.765747
60.040714 55.550503 -62.757355
60.354454 55.555576 -62.672813
60.500702 55.551399 -62.692173
60.684944 55.54427 -62.72266
60.874706 55.485695 -62.697002
61.126755 55.431152 -62.660007
61.251305 55.409454 -62.67128
47.543755 55.619141 -62.612999
47.673 55.626446 -62.659126
47.901737 55.624546 -62.722668
48.120522 55.635616 -62.683502
48.289055 55.660576 -62.692707
48.473412 55.647579 -62.708874
48.709293 55.684116 -62.675465
48.893223 55.678772 -62.693817
49.094734 55.692993 -62.695248
49.294514 55.70874 -62.695259
49.496159 55.707127 -62.692974
49.694004 55.715496 -62.695267
49.909245 55.745132 -62.697491
50.103348 55.751354 -62.692978
50.293056 55.757885 -62.70573
50.499092 55.774044 -62.702965
50.690838 55.75536 -62.689514
50.906204 55.768284 -62.701767
51.118416 55.760838 -62.707752
51.314442 55.761852 -62.719826
51.421257 55.778076 -62.71875
51.729115 55.757812 -62.75164
51.910633 55.772118 -62.721107
52.113392 55.775299 -62.694695
52.306835 55.746246 -62.739162
52.481796 55.753834 -62.742672
52.769562 55.685059 -62.76281
52.896717 55.671131 -62.757359
53.122391 55.72081 -62.760517
53.280457 55.748196 -62.759407
53.501003 55.786026 -62.714828
53.649837 55.791668 -62.730499
53.947502 55.784767 -62.695251
54.083801 55.787498 -62.7164
54.343647 55.770088 -62.767426
54.452751 55.786621 -62.777496
54.723003 55.792969 -62.683495
55.512962 55.769455 -62.751274
55.663002 55.791405 -62.730499
56.135609 55.765408 -62.751385
56.288097 55.778126 -62.7258
56.556004 55.789062 -62.777496
56.89172 55.773994 -62.656643
57.125877 55.770119 -62.745777
57.22575 55.77702 -62.753998
57.578251 55.726238 -62.753998
57.704884 55.761242 -62.703869
57.88504 55.759007 -62.679585
58.095268 55.732147 -62.695248
58.287994 55.743092 -62.694386
58.452446 55.714844 -62.685844
58.6945 55.706135 -62.695267
58.895233 55.726498 -62.688267
59.104324 55.671448 -62.725311
59.315739 55.671558 -62.705479
59.504669 55.64959 -62.699284
59.621971 55.656902 -62.700733
59.865585 55.729385 -62.644329
60.14492 55.626328 -62.662823
60.252209 55.623325 -62.666706
60.491188 55.60387 -62.685631
49.435501 55.800781 -62.765747
49.819336 55.805988 -62.644329
50.164001 55.800781 -62.765747
50.3437 55.820427 -62.661369
50.559586 55.825848 -62.620834
50.724762 55.832436 -62.703766
50.911308 55.810646 -62.712868
51.051128 55.813965 -62.668808
51.319767 55.853516 -62.621544
51.49567 55.847332 -62.628662
51.716816 55.8451 -62.642822
51.893456 55.81311 -62.662922
52.069977 55.809929 -62.709461
52.767799 55.973244 -62.634148
52.8195 55.966145 -62.636494
53.122314 55.89587 -62.654633
53.305447 55.879673 -62.690208
53.511063 55.839191 -62.753998
53.700321 55.858219 -62.72876
53.940025 55.90403 -62.7038
54.086937 55.90358 -62.710918
54.252998 55.898827 -62.695251
54.524326 55.856712 -62.711269
54.765305 55.880783 -62.709816
54.883732 55.884491 -62.702763
55.060814 55.928955 -62.651188
55.330475 55.923927 -62.654114
55.461075 55.931133 -62.659115
55.71336 55.835007 -62.750641
55.895515 55.914421 -62.663074
56.088612 55.905598 -62.66
56.344498 55.829754 -62.724621
56.449345 55.853516 -62.701565
56.603001 55.814453 -62.777496
56.875599 55.808205 -62.692902
57.170353 55.82394 -62.643215
57.778 55.801758 -62.695248
57.919006 55.811523 -62.732178
58.388996 55.806641 -62.683498
58.480766 55.840309 -62.653275
53.277752 56.050781 -62.624748
53.759502 56.003254 -62.620831
53.88876 56.011719 -62.631458
54.088501 56.019531 -62.636494
54.276501 56.02832 -62.648251
55.569 56.013672 -62.612999
35.943146 54.184704 -62.57943
71.936745 54.159668 -62.483742
36.651505 54.99609 -62.424995
36.910004 54.998043 -62.530746
66.990005 54.996094 -62.518997
67.115334 54.98698 -62.581665
67.726341 54.981121 -62.417164
67.965256 54.976562 -62.460243
68.024002 54.987629 -62.487667
68.353004 54.976238 -62.554241
68.476379 54.974316 -62.488441
68.727615 54.967026 -62.564606
68.887321 54.973682 -62.469521
69.084862 54.945312 -62.542503
69.358795 54.96875 -62.443794
69.503685 54.976898 -62.4874
69.693756 54.983654 -62.525192
69.896774 54.983547 -62.47562
70.128716 54.980591 -62.56599
70.268806 54.969494 -62.55479
70.495422 54.979816 -62.41716
72.477257 54.875652 -62.424992
36.569252 55.048824 -62.448494
36.702984 55.101898 -62.512299
36.899387 55.109341 -62.498177
37.103638 55.116581 -62.490852
37.29644 55.112988 -62.502018
37.480537 55.114616 -62.511166
37.731625 55.127167 -62.510288
37.917252 55.139038 -62.484169
38.084557 55.152927 -62.498173
38.279778 55.145767 -62.506813
38.515289 55.166752 -62.441212
38.702442 55.153008 -62.491673
38.881115 55.15395 -62.487263
39.10503 55.159077 -62.486313
39.298008 55.148895 -62.489975
39.495014 55.160248 -62.495522
39.680981 55.159309 -62.509277
39.883186 55.146698 -62.554688
40.069195 55.151882 -62.537796
40.299076 55.145638 -62.492966
40.50811 55.154877 -62.425869
40.715908 55.142578 -62.469284
40.890545 55.154346 -62.476219
41.101112 55.185616 -62.514133
41.311298 55.172184 -62.54248
41.492504 55.161289 -62.534908
41.695187 55.185139 -62.519001
41.873203 55.178776 -62.481396
42.133533 55.171333 -62.524212
42.291504 55.188702 -62.506332
42.535156 55.172184 -62.532593
42.620502 55.199219 -62.530746
43.114002 55.171875 -62.518997
43.525253 55.175781 -62.5895
45.127167 55.178387 -62.518993
62.774101 55.189842 -62.476696
62.901001 55.1875 -62.507244
63.089001 55.197266 -62.471996
63.329872 55.185547 -62.489624
63.500252 55.166939 -62.52552
63.725204 55.174828 -62.485168
63.879772 55.169384 -62.459068
64.092964 55.168674 -62.478931
64.307388 55.15873 -62.468403
64.502586 55.147774 -62.488754
64.705399 55.158592 -62.499447
64.898193 55.143856 -62.488327
65.102036 55.123394 -62.492554
65.298012 55.128426 -62.495525
65.497734 55.121258 -62.495502
65.697495 55.111691 -62.495514
65.897263 55.10997 -62.495476
66.098808 55.092274 -62.496414
66.296753 55.08865 -62.495499
66.496506 55.080658 -62.49551
66.696243 55.067898 -62.495502
66.89045 55.067822 -62.495831
67.100502 55.056332 -62.488503
67.269958 55.045517 -62.43623
67.504753 55.038506 -62.468098
67.693436 55.037697 -62.458694
67.917046 55.03051 -62.464706
68.031044 55.031639 -62.533089
68.321671 55.016708 -62.566006
68.514954 55.018951 -62.498672
68.729988 55.029053 -62.47298
68.893509 55.025959 -62.507248
69.025681 55.013916 -62.557182
69.371338 55.005859 -62.409332
69.505188 55.014648 -62.502411
69.728539 55.014061 -62.465736
69.900398 55.02544 -62.506359
70.102173 55.038059 -62.466908
70.315636 55.035545 -62.474747
70.472008 55.040588 -62.496628
37.771671 55.220699 -62.464161
37.850002 55.21484 -62.468079
38.11935 55.218296 -62.446682
38.275352 55.212494 -62.432045
38.510349 55.218548 -62.490791
38.637253 55.210934 -62.530739
38.945957 55.224781 -62.56813
39.048496 55.21347 -62.575397
39.248253 55.210934 -62.5895
39.746456 55.232807 -62.420296
39.908215 55.245548 -62.44133
40.090973 55.24929 -62.429707
40.290966 55.234688 -62.478065
40.510925 55.234875 -62.512989
40.689445 55.233971 -62.534401
40.924591 55.218533 -62.530083
41.107208 55.212345 -62.482933
41.305138 55.21722 -62.452953
41.511307 55.226906 -62.467316
41.696705 55.21875 -62.53846
41.911789 55.233414 -62.499203
42.063606 55.237598 -62.505348
42.2915 55.231209 -62.517368
42.50214 55.258102 -62.471134
42.705105 55.261467 -62.494511
42.895927 55.272995 -62.495495
43.084259 55.265347 -62.489758
43.300159 55.254978 -62.515324
43.494354 55.272282 -62.473751
43.72065 55.273148 -62.541641
43.90213 55.278103 -62.493763
44.100994 55.28986 -62.495502
44.297184 55.26619 -62.498562
44.46133 55.289959 -62.530735
44.679092 55.289375 -62.511475
44.918144 55.28286 -62.484818
45.08271 55.276711 -62.510784
45.295486 55.281631 -62.512131
45.50029 55.332272 -62.474884
45.704464 55.337299 -62.473076
45.903244 55.328899 -62.498283
46.090248 55.327919 -62.523144
46.317474 55.380947 -62.52327
46.49379 55.379658 -62.493694
46.746056 55.393448 -62.521599
46.803501 55.384766 -62.518997
60.997501 55.394531 -62.542496
61.138496 55.390381 -62.51899
61.379379 55.39209 -62.542496
61.496372 55.369644 -62.547218
61.725578 55.351025 -62.495121
61.90427 55.325085 -62.498192
62.10202 55.306545 -62.495522
62.30175 55.280708 -62.495502
62.502399 55.255535 -62.491867
62.695801 55.244549 -62.496918
62.901012 55.231533 -62.494915
63.101093 55.217579 -62.496197
63.277004 55.222168 -62.463184
63.498295 55.217937 -62.438702
63.68541 55.217133 -62.484154
63.914211 55.218147 -62.535255
64.125603 55.204208 -62.508545
64.253319 55.206322 -62.548893
64.451996 55.203125 -62.401497
64.929832 55.215496 -62.581665
46.171139 55.421341 -62.433537
46.293617 55.43491 -62.479122
46.473743 55.437878 -62.483376
46.688343 55.427635 -62.496681
46.921589 55.491749 -62.50843
47.100266 55.548103 -62.49855
47.298183 55.532665 -62.541332
47.506824 55.567104 -62.552555
47.696503 55.5825 -62.460716
47.911716 55.569489 -62.522705
48.119503 55.56818 -62.461315
48.237 55.593098 -62.413242
48.801003 55.599609 -62.401497
59.822502 55.597656 -62.401497
60.49617 55.546005 -62.581665
60.941101 55.457031 -62.570683
61.11129 55.428043 -62.57217
61.303001 55.441074 -62.498398
61.496883 55.449402 -62.438961
61.608501 55.400391 -62.413246
47.109001 55.601562 -62.413246
47.226501 55.621094 -62.401497
47.551094 55.640869 -62.479336
47.685951 55.626556 -62.505108
47.892677 55.652004 -62.512859
48.096416 55.68956 -62.484394
48.298111 55.685677 -62.495518
48.493679 55.691685 -62.490635
48.695251 55.673828 -62.495502
48.880173 55.673859 -62.507809
49.098888 55.679256 -62.500351
49.29451 55.676189 -62.513401
49.496273 55.700836 -62.498215
49.694008 55.73259 -62.495502
49.908806 55.748371 -62.495213
50.099159 55.753265 -62.504433
50.297031 55.751251 -62.508369
50.502678 55.783661 -62.489273
50.699558 55.774567 -62.455925
50.916008 55.76635 -62.451977
51.08638 55.763966 -62.518993
51.293354 55.757309 -62.459236
51.516319 55.755386 -62.501205
51.704258 55.762669 -62.525719
51.899082 55.776367 -62.545757
52.085129 55.77832 -62.565998
55.862751 55.791016 -62.565994
57.402 55.796875 -62.472
57.778 55.725586 -62.577747
57.895504 55.723251 -62.570072
58.077972 55.753563 -62.550781
58.326107 55.746151 -62.527977
58.492161 55.745861 -62.487938
58.701065 55.752701 -62.504143
58.894253 55.756672 -62.495499
59.387753 55.675781 -62.5895
59.434753 55.62793 -62.5895
59.895599 55.68663 -62.495533
60.139992 55.668236 -62.485374
60.26902 55.669922 -62.499615
60.477242 55.67551 -62.456997
60.868256 55.663086 -62.401497
49.819336 55.811199 -62.50333
50.130432 55.813057 -62.458561
50.32011 55.817802 -62.471165
50.506603 55.821495 -62.50108
50.70887 55.843021 -62.530491
50.911304 55.841408 -62.499409
51.113705 55.854153 -62.472523
51.310955 55.833038 -62.554623
51.491749 55.822964 -62.54752
51.703251 55.824219 -62.589504
51.950001 55.806152 -62.571877
52.060276 55.835335 -62.549717
52.584503 55.994141 -62.401497
52.729218 55.929585 -62.479416
52.908287 55.958008 -62.465469
53.126064 55.964577 -62.525406
53.287151 55.956055 -62.511169
53.465755 55.97583 -62.501366
53.702835 55.977825 -62.553547
53.918125 55.948406 -62.554245
54.071407 55.942825 -62.554234
54.252998 55.909962 -62.577747
54.474949 55.935982 -62.565998
54.766644 55.974331 -62.498852
54.877716 55.952961 -62.481781
55.005001 55.998047 -62.448494
55.369251 55.84668 -62.5895
55.475006 55.905693 -62.589504
55.942066 55.901245 -62.554234
56.076069 55.942234 -62.522617
56.203503 55.863281 -62.542496
56.738777 55.972221 -62.411942
57.178749 55.861328 -62.542496
57.276669 55.827473 -62.542496
57.504757 55.86462 -62.476154
57.676167 55.893337 -62.452435
57.858948 55.873047 -62.406719
58.117458 55.839626 -62.464172
58.268963 55.829391 -62.45612
58.523594 55.822445 -62.542496
58.671001 55.804688 -62.464943
52.149754 56.032471 -62.413242
52.310085 56.058529 -62.431061
52.474834 56.054688 -62.432823
52.692459 56.038818 -62.473465
52.926041 56.034115 -62.512718
53.08461 56.018982 -62.505787
53.324749 56.014431 -62.539883
53.497288 56.020046 -62.53754
53.648277 56.012108 -62.529957
54.358746 56.066994 -62.448494
54.43317 56.053387 -62.479828
54.770008 56.031902 -62.525253
54.894463 56.054905 -62.483307
55.031441 56.037354 -62.47493
55.569 56.025391 -62.5895
56.082081 56.023438 -62.558163
37.615005 54.988277 -62.272247
67.365997 54.976562 -62.330994
67.442375 54.996582 -62.266369
67.72522 54.984097 -62.270569
67.899269 54.992939 -62.316532
68.435257 54.977539 -62.307495
68.729004 54.972656 -62.359196
69.046242 54.962727 -62.295746
69.375252 54.916016 -62.330994
69.479202 54.983322 -62.264114
69.725243 54.977959 -62.280628
69.870605 54.981087 -62.280285
70.145409 54.996094 -62.313904
70.338745 54.994629 -62.213493
36.562199 55.116985 -62.244049
36.702026 55.151264 -62.254639
36.906704 55.121777 -62.291004
37.091591 55.119553 -62.289352
37.293041 55.126137 -62.292618
37.504562 55.122261 -62.286335
37.70578 55.120705 -62.295971
37.897003 55.12825 -62.29575
38.088692 55.122734 -62.295517
38.308701 55.122253 -62.310677
38.493519 55.135479 -62.300846
38.689137 55.145668 -62.298473
38.900452 55.161488 -62.29731
39.099903 55.151119 -62.292809
39.288857 55.156933 -62.290176
39.499508 55.154541 -62.265995
39.688778 55.167759 -62.290203
39.902641 55.128941 -62.316536
40.085106 55.145035 -62.304008
40.298077 55.146961 -62.29829
40.505508 55.150471 -62.308491
40.696171 55.156384 -62.2728
40.897556 55.180782 -62.27713
41.117241 55.180725 -62.303818
41.285839 55.181755 -62.292992
41.482704 55.170898 -62.316326
41.704002 55.1875 -62.283997
41.9202 55.167969 -62.359196
42.076481 55.181835 -62.334522
42.385502 55.105469 -62.366249
42.513763 55.167725 -62.32513
42.667503 55.192383 -62.239349
42.958897 55.183399 -62.276947
43.090496 55.1875 -62.304138
43.5135 55.190571 -62.213497
43.64275 55.181641 -62.231125
44.923504 55.1875 -62.307495
62.313503 55.197266 -62.330994
62.995003 55.199219 -62.342747
63.0373 55.192188 -62.326294
63.327129 55.196743 -62.320026
63.485302 55.170364 -62.293606
63.701946 55.16851 -62.301628
63.90897 55.172035 -62.290981
64.088257 55.162354 -62.298687
64.282211 55.148388 -62.315155
64.509377 55.168015 -62.317348
64.738701 55.157814 -62.265194
64.895973 55.154148 -62.299175
65.104645 55.150906 -62.287289
65.294006 55.134361 -62.309727
65.497749 55.117981 -62.295738
65.697487 55.121662 -62.29575
65.892555 55.115757 -62.291039
66.099678 55.106613 -62.293716
66.296753 55.078735 -62.295753
66.49649 55.073189 -62.295761
66.696243 55.071869 -62.295746
66.896027 55.057373 -62.29575
67.095764 55.056213 -62.295734
67.27697 55.058479 -62.293938
67.493988 55.036446 -62.302883
67.669472 55.044754 -62.325634
67.9114 55.020588 -62.330017
68.188499 55.039062 -62.272247
68.308434 55.022697 -62.271828
68.473854 55.023228 -62.278973
68.661446 55.015625 -62.34568
69.046242 55.032959 -62.366245
69.372047 55.014027 -62.28186
69.469261 55.02705 -62.281654
69.693573 55.020241 -62.349159
69.929695 55.019985 -62.318985
70.095108 55.015919 -62.291965
70.30143 55.020653 -62.300571
70.487579 55.026287 -62.28009
70.609001 55.042969 -62.248749
71.102501 55.175781 -62.342747
38.092834 55.209305 -62.374081
38.331753 55.212887 -62.295746
38.537376 55.209957 -62.219368
38.759792 55.215954 -62.270569
38.825253 55.207027 -62.272247
39.060249 55.204586 -62.319244
39.34729 55.219025 -62.341068
39.486538 55.212963 -62.351688
39.730003 55.211712 -62.377998
39.835754 55.209957 -62.213493
40.059006 55.201168 -62.377998
40.446754 55.208004 -62.319244
40.725224 55.244141 -62.346275
40.897854 55.219513 -62.353489
41.098885 55.217285 -62.325123
41.305485 55.21582 -62.309475
41.542442 55.214111 -62.260498
41.736095 55.223515 -62.297192
41.86599 55.222797 -62.268063
42.134232 55.228565 -62.291229
42.534599 55.243465 -62.276703
42.709274 55.238823 -62.306187
42.893406 55.235699 -62.298801
43.096497 55.264835 -62.295513
43.293087 55.266232 -62.28278
43.504581 55.283829 -62.297626
43.712505 55.2724 -62.289986
43.901249 55.277527 -62.295746
44.090458 55.272865 -62.310337
44.305092 55.300644 -62.302139
44.493191 55.306465 -62.261562
44.713516 55.294353 -62.283249
44.902992 55.258629 -62.300648
45.096859 55.295307 -62.291679
45.296154 55.323723 -62.287342
45.49926 55.321045 -62.295719
45.709637 55.349167 -62.306599
45.861034 55.362766 -62.287712
46.080879 55.379883 -62.310432
46.232788 55.396763 -62.341064
46.521503 55.382812 -62.283997
61.338257 55.384766 -62.334911
61.526875 55.364719 -62.274094
61.711544 55.369892 -62.308407
61.914001 55.347836 -62.296406
62.102009 55.325005 -62.295742
62.274757 55.304001 -62.290356
62.508835 55.287445 -62.286919
62.701241 55.249969 -62.295738
62.895477 55.232136 -62.294353
63.113396 55.222839 -62.292885
63.293484 55.211246 -62.289352
63.519161 55.224525 -62.341228
63.747002 55.215038 -62.294567
63.887119 55.216434 -62.302265
64.106026 55.218426 -62.272243
64.287506 55.216518 -62.267212
64.478859 55.211773 -62.273926
64.921997 55.206196 -62.263851
65.046211 55.21875 -62.364567
65.239258 55.208008 -62.272247
45.669319 55.418484 -62.265446
45.895393 55.440987 -62.263855
46.132622 55.424664 -62.300793
46.308628 55.442287 -62.28125
46.453548 55.443623 -62.313213
46.737053 55.551456 -62.274269
46.89257 55.54987 -62.293098
47.067371 55.5625 -62.320919
47.696503 55.580078 -62.354496
48.346668 55.578449 -62.283997
48.497643 55.579723 -62.307495
59.846001 55.582031 -62.377998
60.912315 55.57959 -62.278122
61.117138 55.566494 -62.266907
61.325108 55.467255 -62.317173
61.504932 55.429977 -62.34581
61.693096 55.434765 -62.295765
61.830074 55.418526 -62.267212
46.697754 55.602539 -62.283997
47.094902 55.622265 -62.274597
47.283569 55.636345 -62.284
47.543751 55.61377 -62.377998
47.705124 55.661915 -62.271458
47.911438 55.673592 -62.301197
48.073959 55.661579 -62.273712
48.292038 55.665443 -62.311516
48.495102 55.661537 -62.29776
48.695908 55.690105 -62.265068
48.904842 55.694675 -62.269787
49.097015 55.712448 -62.293095
49.291012 55.738449 -62.263515
49.494705 55.740871 -62.284912
49.697464 55.74934 -62.290916
49.893944 55.779461 -62.299133
50.094898 55.765079 -62.28447
50.321209 55.766365 -62.311539
50.505127 55.762665 -62.318851
50.686878 55.740479 -62.34079
50.904877 55.759045 -62.335949
51.067848 55.747898 -62.349068
58.549587 55.767902 -62.370163
58.733681 55.76289 -62.356064
58.812 55.791016 -62.366249
59.799 55.798828 -62.283997
59.913563 55.727749 -62.287777
60.104519 55.6824 -62.29575
60.297726 55.705078 -62.282692
60.511318 55.717373 -62.28476
60.67226 55.736717 -62.252987
60.928131 55.639881 -62.292946
61.081425 55.609516 -62.263855
49.564751 55.804688 -62.319244
49.957928 55.808445 -62.28038
50.124054 55.811913 -62.370949
50.288841 55.81665 -62.361839
50.503452 55.812935 -62.372776
50.645752 55.820312 -62.377998
50.936901 55.915798 -62.294441
51.087219 55.946987 -62.267212
51.303745 55.972046 -62.22525
51.442791 55.984539 -62.264416
51.706184 55.965698 -62.254623
51.910839 55.957031 -62.242874
52.119724 55.978733 -62.302273
52.297276 55.961948 -62.338848
52.4482 55.97578 -62.3498
52.666752 55.914715 -62.377995
54.370502 55.971355 -62.378002
57.519501 55.879559 -62.378002
57.703979 55.896385 -62.348625
57.913578 55.853966 -62.352688
58.105206 55.870892 -62.326797
58.287174 55.86359 -62.305267
58.48983 55.863216 -62.327965
58.689579 55.8894 -62.271423
58.913349 55.834473 -62.320713
59.783337 55.809895 -62.299664
60.598003 55.817383 -62.366249
51.131649 56.014477 -62.25082
51.321762 56.011459 -62.276165
51.503502 56.015625 -62.283997
51.701187 56.024242 -62.292294
51.924732 56.036182 -62.322205
52.087646 56.025669 -62.344433
52.290752 56.014324 -62.377995
52.45525 56.005371 -62.377998
54.323502 56.007812 -62.377998
59.264378 56.362793 -62.219368
59.181282 56.488281 -62.250427
59.242336 56.467896 -62.270779
36.169754 54.177731 -62.142998
71.878006 54.08242 -62.002003
35.932674 54.293251 -62.055225
36.055054 54.291939 -62.083694
36.628006 54.994137 -62.072495
37.145004 54.986324 -62.166496
38.367004 54.970699 -62.154747
67.107498 54.99707 -62.10775
67.479591 54.984375 -62.158661
67.644081 54.987305 -62.01767
67.882996 54.991798 -62.063099
68.376503 54.996094 -62.001999
68.531609 54.994141 -62.081905
68.735725 54.98819 -62.144119
68.975754 54.951172 -62.096001
69.0345 54.97591 -62.095997
69.304749 54.979492 -62.107746
69.433998 54.96159 -62.189991
69.967262 54.974159 -62.148422
70.105652 54.962826 -62.085373
70.306755 54.984917 -62.064663
70.474533 54.991535 -62.085556
70.618401 54.985157 -62.077198
36.569248 55.103512 -62.125378
36.704559 55.09259 -62.111637
36.898247 55.103622 -62.095966
37.093555 55.109688 -62.092152
37.297745 55.11211 -62.095982
37.497509 55.120316 -62.095985
37.697258 55.116722 -62.095993
37.890419 55.126427 -62.099731
38.09655 55.14426 -62.091614
38.312988 55.147507 -62.0737
38.498615 55.125538 -62.086559
38.696011 55.116146 -62.095955
38.895752 55.136391 -62.095963
39.104309 55.159149 -62.093052
39.300285 55.160927 -62.092625
39.480061 55.15675 -62.0853
39.700542 55.155342 -62.096672
39.885628 55.154552 -62.08709
40.098663 55.173885 -62.056332
40.284916 55.160862 -62.070896
40.522739 55.16098 -62.080311
40.700214 55.168926 -62.090233
40.891823 55.168205 -62.135521
41.108669 55.186718 -62.103825
41.311409 55.171646 -62.090446
41.476475 55.169125 -62.068233
41.709881 55.186279 -62.066628
41.845001 55.193359 -62.166496
42.287888 55.1866 -62.021893
42.500393 55.189236 -62.054226
42.654449 55.173176 -62.059448
42.816334 55.177082 -62.182159
43.137501 55.199219 -62.096001
43.307224 55.193142 -62.184772
43.516853 55.184711 -62.156429
43.85817 55.182617 -62.099918
63.332943 55.189545 -62.045635
63.474403 55.189064 -62.0396
63.740089 55.178078 -62.064209
63.905972 55.172832 -62.118546
64.10257 55.166927 -62.091091
64.293915 55.164299 -62.08849
64.478638 55.165756 -62.094418
64.692337 55.147995 -62.128036
64.903069 55.134327 -62.102997
65.098251 55.13916 -62.095993
65.298012 55.141781 -62.096004
65.502785 55.123108 -62.092632
65.693886 55.121521 -62.094189
65.903671 55.108311 -62.091709
66.097008 55.091316 -62.095955
66.296753 55.098984 -62.095974
66.496483 55.083961 -62.095993
66.696259 55.08073 -62.095982
66.896027 55.073036 -62.095963
67.092346 55.050026 -62.100143
67.295509 55.04567 -62.095963
67.54174 55.053753 -62.089867
67.702454 55.044334 -62.1003
67.886719 55.0368 -62.107098
68.043579 55.044052 -62.03334
68.348297 55.028774 -62.143002
68.46714 55.024387 -62.089272
68.78775 55.023438 -62.001999
68.870003 55.014061 -62.013756
69.187256 55 -62.025497
69.351746 55.027344 -62.189995
69.711304 55.001953 -62.067799
69.937943 55.017902 -62.043781
70.095482 55.019966 -62.150822
70.300629 55.018291 -62.129238
70.519226 55.017033 -62.10257
70.626625 55.034016 -62.125378
36.710251 55.204586 -62.013756
38.214252 55.208492 -62.10775
38.47443 55.206749 -62.183285
39.624252 55.202145 -62.001999
39.843586 55.210281 -62.182163
40.219589 55.205723 -62.119503
40.482002 55.218163 -62.1101
40.724831 55.20694 -62.103825
40.918514 55.215187 -62.055443
41.101952 55.219215 -62.090385
41.293312 55.227448 -62.111629
41.519924 55.231323 -62.11264
41.684078 55.223377 -62.107231
41.913574 55.240524 -62.090572
42.103497 55.247879 -62.095997
42.297913 55.259544 -62.092251
42.515625 55.25246 -62.079025
42.709656 55.269096 -62.101223
42.905819 55.270458 -62.092686
43.097546 55.24987 -62.103809
43.27232 55.263878 -62.04034
43.530037 55.25861 -62.102081
43.696712 55.271267 -62.098583
43.921326 55.270184 -62.115097
44.100998 55.292763 -62.092773
44.324764 55.309231 -62.07811
44.500511 55.278549 -62.095974
44.700253 55.283798 -62.095974
44.908813 55.289387 -62.098942
45.099739 55.293755 -62.096001
45.299515 55.329453 -62.095982
45.49926 55.358505 -62.095982
45.68874 55.353462 -62.086716
45.879353 55.378998 -62.114014
61.784752 55.333984 -62.178246
61.886887 55.326321 -62.177345
62.117683 55.365784 -62.117004
62.30302 55.338432 -62.10611
62.501495 55.311489 -62.095982
62.701248 55.271267 -62.095989
62.901012 55.247131 -62.095982
63.100754 55.235027 -62.095974
63.2836 55.223991 -62.112072
63.498577 55.234039 -62.060394
63.692955 55.206642 -62.056053
63.897675 55.229092 -62.042091
64.040756 55.213379 -62.189995
64.358002 55.212566 -62.178249
64.523972 55.210938 -62.053413
64.700279 55.219345 -62.041847
64.869125 55.212891 -62.113621
45.771851 55.414845 -62.161797
45.901848 55.461555 -62.04158
46.14785 55.463867 -62.103039
46.288734 55.488796 -62.120369
46.445576 55.509014 -62.094196
46.662491 55.530094 -62.126968
46.890926 55.555546 -62.168358
60.997501 55.558594 -62.189995
61.103249 55.563965 -62.189999
61.360073 55.560825 -62.149712
61.474739 55.547176 -62.099617
61.752445 55.460693 -62.081318
61.882156 55.436554 -62.070225
62.081108 55.411568 -62.051617
62.243 55.405598 -62.001999
46.967999 55.679688 -62.015434
47.100449 55.63583 -62.078457
47.295845 55.655029 -62.094818
47.442696 55.689941 -62.056053
47.708469 55.665447 -62.109657
47.901684 55.695778 -62.092484
48.093605 55.674942 -62.096882
48.299141 55.692101 -62.086018
48.502224 55.703434 -62.081417
48.695251 55.695663 -62.095966
48.895611 55.718597 -62.091091
49.094734 55.715714 -62.096001
49.294514 55.714191 -62.096016
49.490925 55.728222 -62.123474
49.695721 55.715557 -62.146996
49.898788 55.737946 -62.14769
50.059322 55.739346 -62.170773
58.788502 55.792969 -62.119499
59.912781 55.759796 -62.105682
60.104527 55.743755 -62.095982
60.309601 55.723515 -62.088528
60.501621 55.722633 -62.098072
60.696491 55.728642 -62.120491
60.862713 55.71714 -62.107033
61.068005 55.675129 -62.001999
49.73317 55.909832 -62.024204
49.879486 55.832661 -62.071655
50.164001 55.944988 -62.013752
50.346958 55.928711 -62.062435
50.52639 55.958984 -62.066322
50.717262 55.93605 -62.128216
50.900105 55.934628 -62.151279
51.088017 55.921173 -62.166481
51.303745 55.900757 -62.178249
51.421249 55.917969 -62.189995
58.718002 55.869968 -62.157448
58.829628 55.879395 -62.1665
59.8601 55.812111 -62.0396
60.732601 55.817825 -62.027645
50.263878 56.011719 -62.054874
50.493004 56.022373 -62.096004
50.6105 56.000977 -62.131248
59.16156 56.377686 -62.143002
59.281998 56.35458 -62.100277
59.52483 56.37207 -62.107746
59.622749 56.324219 -62.154747
59.1175 56.480469 -62.121849
59.363682 56.427921 -62.082565
59.442585 56.423393 -62.075115
59.070507 56.617188 -62.025497
35.98175 54.191402 -61.907997
36.040504 54.191402 -61.908001
71.898415 54.112663 -61.89687
35.962952 54.246284 -61.959698
36.056767 54.242783 -61.945965
36.792503 54.998043 -61.837494
37.532753 54.982418 -61.954994
67.48687 54.986885 -61.86771
67.789001 54.933594 -61.908001
67.873108 54.961349 -61.884502
68.000504 54.998047 -61.954994
68.298958 54.978905 -61.891548
68.486778 54.982273 -61.871849
68.678093 54.988605 -61.84338
68.866638 54.965401 -61.968426
69.0345 54.970703 -61.9785
69.301811 54.982178 -61.963806
69.492752 54.983398 -61.884499
69.746216 54.975445 -61.850925
69.915756 54.972446 -61.903801
70.027374 54.985352 -61.925621
70.2565 54.989258 -61.931496
70.550255 54.993408 -61.940308
70.609001 54.972656 -61.907997
36.549946 55.108883 -61.895409
36.694759 55.091568 -61.899487
36.898453 55.101421 -61.89769
37.094933 55.092133 -61.899811
37.299049 55.093437 -61.897564
37.488506 55.101917 -61.890385
37.711849 55.123577 -61.898026
37.903046 55.125233 -61.898754
38.096748 55.135555 -61.896248
38.296494 55.144093 -61.896221
38.496262 55.146969 -61.896221
38.71513 55.114639 -61.903645
38.901829 55.133682 -61.901108
39.091091 55.145138 -61.887424
39.292591 55.165131 -61.897747
39.498753 55.172382 -61.898464
39.693913 55.175182 -61.892048
39.875824 55.172771 -61.865204
40.09761 55.139458 -61.920311
40.250916 55.162106 -61.888401
40.529552 55.171238 -61.880116
40.702572 55.170643 -61.900986
40.893951 55.174747 -61.940487
41.100163 55.165676 -61.942738
41.311085 55.160545 -61.835606
41.502712 55.164574 -61.843639
41.680504 55.179539 -61.880886
41.974251 55.193359 -61.943245
42.064335 55.188152 -61.857082
42.253906 55.186329 -61.973797
42.497128 55.169922 -61.902122
42.745838 55.172527 -61.872753
42.849625 55.168293 -61.866879
43.736752 55.193359 -61.825745
45.088001 55.183594 -61.861
63.366302 55.187111 -61.945599
63.492424 55.179688 -61.93803
63.794003 55.163086 -61.872749
63.902107 55.157814 -61.922108
64.098625 55.181278 -61.876663
64.299255 55.168243 -61.896229
64.495934 55.155968 -61.892654
64.701721 55.136585 -61.897655
64.898514 55.151176 -61.89624
65.095375 55.142513 -61.900288
65.30854 55.130825 -61.909203
65.497742 55.137878 -61.896244
65.697495 55.128716 -61.89624
65.897263 55.124725 -61.896236
66.092598 55.114624 -61.893311
66.296753 55.101746 -61.896248
66.49649 55.089218 -61.896225
66.696243 55.081665 -61.896244
66.896011 55.095024 -61.896255
67.095757 55.086914 -61.896244
67.295502 55.050102 -61.896255
67.467583 55.045616 -61.8951
67.669357 55.045158 -61.905151
67.915054 55.027996 -61.909428
68.048706 55.0303 -61.894749
68.317749 55.030415 -61.908001
68.507744 55.020771 -61.914299
68.710976 55.025978 -61.906807
68.822998 55.003906 -61.9785
69.368202 55.038673 -61.844543
69.434013 55.02702 -61.849255
69.720528 55.021561 -61.931499
69.912743 55.019421 -61.905323
70.090576 55.022491 -61.858154
70.313927 55.026722 -61.891224
70.506393 55.036156 -61.872452
70.634186 55.037666 -61.866035
70.890999 55.097004 -61.825745
37.638504 55.208981 -61.849247
37.861755 55.208004 -61.813995
39.130753 55.21191 -61.966751
39.377502 55.210934 -61.849247
39.408833 55.20377 -61.845325
39.70063 55.203854 -61.925617
39.929752 55.214512 -61.892334
40.02375 55.208981 -61.872749
40.51725 55.206051 -61.890369
40.727074 55.217915 -61.857635
40.914898 55.227795 -61.85667
41.10733 55.229229 -61.870163
41.294991 55.253582 -61.922573
41.508778 55.241085 -61.923077
41.709183 55.229904 -61.899612
41.899052 55.233692 -61.893105
42.107056 55.230675 -61.899811
42.30743 55.235203 -61.889668
42.546917 55.228619 -61.906776
42.695145 55.229836 -61.939102
42.920574 55.236404 -61.91433
43.102242 55.268585 -61.896244
43.295868 55.251232 -61.907467
43.501762 55.273468 -61.896233
43.697994 55.273495 -61.899231
43.906925 55.277916 -61.892605
44.105267 55.268734 -61.902653
44.300758 55.259949 -61.896244
44.509899 55.305614 -61.896248
44.694176 55.311859 -61.903542
44.90102 55.315754 -61.892685
45.109531 55.286213 -61.916805
45.296944 55.354523 -61.905415
45.50285 55.381737 -61.882099
45.672043 55.383446 -61.902466
45.907143 55.392021 -61.884495
62.11375 55.398438 -61.943245
62.341282 55.378994 -61.91975
62.503624 55.353218 -61.898365
62.701237 55.305542 -61.896244
62.901009 55.277939 -61.896248
63.100761 55.251953 -61.896263
63.295601 55.237144 -61.892563
63.478649 55.245022 -61.870853
63.681728 55.240341 -61.862312
63.880169 55.223091 -61.939331
64.100105 55.214642 -61.898956
64.569504 55.21159 -61.9785
64.62825 55.211914 -61.9785
65.156998 55.21875 -61.813995
65.254356 55.21875 -61.842541
45.320065 55.407715 -61.822807
45.487499 55.408463 -61.942471
45.719234 55.421062 -61.889065
45.886406 55.4375 -61.914627
46.117302 55.479103 -61.92915
46.276268 55.534103 -61.879665
46.488152 55.556072 -61.874645
46.76825 55.582031 -61.825745
46.932751 55.578266 -61.906319
47.033802 55.584766 -61.969097
47.30875 55.580078 -61.907997
48.918503 55.597656 -61.907997
49.318001 55.599609 -61.9785
61.747021 55.54631 -61.890045
61.858772 55.500099 -61.935036
62.118092 55.442947 -61.889854
62.253841 55.429764 -61.879978
46.753143 55.632812 -61.857639
46.935371 55.647678 -61.896255
47.107109 55.656914 -61.891083
47.270889 55.647732 -61.914524
47.46069 55.669651 -61.892593
47.72551 55.685421 -61.887508
47.897552 55.677269 -61.894936
48.095985 55.694199 -61.896225
48.295761 55.70813 -61.896252
48.493439 55.685287 -61.901073
48.689835 55.689152 -61.912521
48.882561 55.679688 -61.943245
49.104156 55.649803 -61.959709
49.237431 55.653179 -61.971783
49.741001 55.789062 -61.931496
59.926949 55.782333 -61.968052
60.121826 55.767166 -61.924694
60.302898 55.768742 -61.908466
60.484238 55.750931 -61.914413
60.711468 55.778793 -61.861664
60.814201 55.795704 -61.922096
